# .PCD v0.7 - Point Cloud Data file format
VERSION 0.7
FIELDS x y z
SIZE 4 4 4
TYPE F F F
COUNT 1 1 1
WIDTH 1225
HEIGHT 1
VIEWPOINT 0 0 0 1 0 0 0
POINTS 1225
DATA ascii
-1.365588546 2.048551083 0.04649481922
-0.7766728997 1.164412856 0.02795164101
-0.773011148 1.166846991 0.02795164101
-0.7720565796 1.173467517 0.02803890221
-0.7670149803 1.173784375 0.02799527161
-0.7684963346 1.184749246 0.02816979587
-1.327832222 2.091011524 0.04675660655
-1.314637661 2.084571123 0.04653844982
-1.306764483 2.086566687 0.04649481922
-1.297582269 2.086404562 0.04640755802
-1.289717793 2.088337898 0.04636392742
-1.280556202 2.088106155 0.04627666622
-1.271412134 2.08783412 0.04618940502
-1.262640357 2.087311506 0.04610214382
-1.253522396 2.086970329 0.0460148789
-1.244419217 2.086592674 0.04592762142
-1.235329628 2.08617878 0.0458403565
-1.224999189 2.083567381 0.0457094647
-1.21594739 2.083076239 0.04562219977
-1.206909895 2.082549572 0.04553493857
-1.197888613 2.08198595 0.04544767737
-1.188881993 2.081387043 0.04536041617
-1.179891825 2.080751181 0.04527315125
-1.170916319 2.080080509 0.04518589377
-1.161597729 2.079573154 0.04509862885
-1.152652621 2.078831434 0.04501136765
-1.143365502 2.078248501 0.04492410272
-1.136003852 2.079434872 0.04488047212
-1.128284812 2.08079052 0.04483684525
-1.119392991 2.079911709 0.04474958032
-1.112853646 2.083417892 0.04474958032
-1.103981614 2.082476139 0.04466231912
-1.096280932 2.083716393 0.04461868852
-1.088582397 2.084928989 0.04457505792
-1.080890775 2.086111069 0.0445314236
-1.073560953 2.08708334 0.04448779672
-1.065872431 2.088214397 0.04444416612
-1.058188438 2.089317083 0.0444005318
-1.049395204 2.088154078 0.0443132706
-1.041725397 2.089198351 0.04426964
-0.5168765783 1.040953636 0.0238066949
-0.5157704353 1.047077656 0.02389395609
-0.5135541558 1.050948977 0.02393758669
-0.5113192201 1.054816604 0.02398121916
-0.5090644956 1.058680773 0.02402484789
-0.9555833936 2.077814579 0.04344065115
-0.9500777125 2.083085775 0.04348428175
-0.9435290098 2.086060047 0.04348428175
-0.9366086721 2.089175224 0.04348428175
-0.9300373197 2.092109919 0.04348428175
-0.9224634171 2.092729092 0.04344065115
-0.9158851504 2.095616341 0.04344065115
-0.9086796641 2.096026659 0.04339702055
-0.9024565816 2.098713875 0.04339702055
-0.8948901892 2.099234104 0.04335338995
-0.8882901073 2.102035522 0.04335338995
-0.880363822 2.102656841 0.04330975562
-0.8718575835 2.100787401 0.04322249442
-0.8643133044 2.101200342 0.04317886382
-0.8558436632 2.099266291 0.04309160262
-0.8473938107 2.097300768 0.04300434142
-0.8398833275 2.097627401 0.04296071082
-0.8314678073 2.09559989 0.0428734459
-0.8239775896 2.095870972 0.04282981902
-0.8155969381 2.093782187 0.0427425541
-0.8081268072 2.093997717 0.0426989235
-0.800301373 2.09432435 0.0426552929
-0.7919686437 2.09214592 0.04256802797
-0.7853915095 2.094623804 0.04256802797
-0.7779489756 2.094733 0.04252439737
-0.7705125213 2.094816923 0.0424807705
-0.7630842924 2.094874144 0.04243713617
-0.7556622028 2.094905853 0.04239350557
-0.7490778565 2.097269058 0.04239350557
-0.7420302033 2.097121716 0.04234987497
-0.7349886298 2.096951485 0.04230624437
-0.7275900245 2.096884489 0.04226261377
-0.4282259047 1.245633006 0.02651181631
-0.4305927753 1.265956759 0.02686086483
-0.4263951778 1.267375708 0.02686086483
-0.4231786728 1.271089077 0.0269044973
-0.4184211493 1.270031571 0.02686086483
-0.6578517556 2.062149048 0.0413027294
-0.6572893858 2.083306551 0.04165177792
-0.6514741778 2.087750912 0.04169540852
-0.6463614106 2.09457159 0.04178266972
-0.6390609145 2.094197512 0.04173904285
-0.6338979006 2.100988388 0.04182630405
-0.6265923381 2.100570202 0.04178266972
-0.6199902296 2.102528572 0.04178266972
-0.6123315096 2.102167606 0.04173904285
-0.6057204604 2.104082823 0.04173904285
-0.5973997116 2.101262569 0.04165177792
-0.5911601782 2.103027344 0.04165177792
-0.5842611194 2.102360249 0.04160814732
-0.5780206323 2.10408473 0.04160814732
-0.57076478 2.103474855 0.04156451672
-0.5635193586 2.102839708 0.04152088612
-0.5562826395 2.102180243 0.04147725552
-0.5496760607 2.103917122 0.04147725552
-0.5424512029 2.103210211 0.0414336212
-0.5358424783 2.104903698 0.0414336212
-0.5292255282 2.106577158 0.0414336212
-0.5226052999 2.10822916 0.0414336212
-0.5159799457 2.10986042 0.0414336212
-0.5087755322 2.109038353 0.04138999432
-0.5012170076 2.108277321 0.04134636372
-0.4940283597 2.107406855 0.0413027294
-0.4874057174 2.108948469 0.0413027294
-0.4802355766 2.108029127 0.0412590988
-0.4736109972 2.109527349 0.0412590988
-0.4664534628 2.108561754 0.04121547192
-0.4598273337 2.110016823 0.04121547192
-0.4526836574 2.109004259 0.0411718376
-0.4460561574 2.110415936 0.0411718376
-0.4384300411 2.106907368 0.0410845764
-0.4322981536 2.110725641 0.041128207
-0.4254373908 2.107019186 0.04104094207
-0.4192906916 2.110799551 0.0410845764
-0.4112577736 2.104739428 0.0409536846
-0.405561775 2.110934973 0.04104094207
-0.3980248272 2.107281923 0.0409536846
-0.3914806545 2.111048698 0.0409973152
-0.3839730918 2.107346773 0.04091005027
-0.3782064319 2.113468409 0.0409973152
-0.3703056276 2.107253313 0.04086641967
-0.3645083904 2.113337278 0.0409536846
-0.3570569754 2.109538794 0.04086641967
-0.3508249521 2.113117933 0.04091005027
-0.3437961936 2.111740351 0.04086641967
-0.3371606767 2.112809896 0.04086641967
-0.3297739029 2.108915806 0.04077915847
-0.1759908199 1.115929127 0.02323949151
-0.1724810749 1.116477966 0.02323949151
-0.1675744951 1.107114077 0.02306496724
-0.1647794396 1.112587214 0.02315222844
-0.1599467993 1.10319078 0.02297770604
-0.1574596912 1.111122131 0.02310859784
-0.2268825173 1.717188001 0.03375456482
-0.2217868119 1.717853546 0.03375456482
-0.1705101281 1.336346269 0.0270353891
-0.1657337099 1.331909657 0.02694812603
-0.1623899341 1.33987534 0.02707902156
-0.1581800431 1.340378761 0.02707902156
-0.154497847 1.345840216 0.02716628276
-0.2206603289 2.095462322 0.04029921815
-0.2152809054 2.108584881 0.04051737115
-0.2091220915 2.114228249 0.04060463607
-0.2024794221 2.11487484 0.04060463607
-0.195834741 2.11550045 0.04060463607
-0.1891871393 2.11610508 0.04060463607
-0.1827394515 2.119180679 0.04064826667
-0.1754995137 2.112267971 0.04051737115
-0.1692354232 2.117794275 0.04060463607
-0.1622241735 2.113328934 0.04051737115
-0.1559252292 2.118815899 0.04060463607
-0.148576811 2.114331245 0.04051737115
-0.1422398537 2.119778395 0.04060463607
-0.1356552243 2.11520052 0.04051737115
-0.129658699 2.120585203 0.04060463607
-0.1226003915 2.113493681 0.04047374427
-0.1162071452 2.118861437 0.04056100175
-0.1093183756 2.114222288 0.04047374427
-0.1028925255 2.119549751 0.04056100175
-0.09603304416 2.114867449 0.04047374427
-0.08957285434 2.120154619 0.04056100175
-0.08265731484 2.112931013 0.04043010995
-0.07624943554 2.120675325 0.04056100175
-0.06901521981 2.113419533 0.04043010995
-0.0624936074 2.118624687 0.04051737115
-0.05573031306 2.113812447 0.04043010995
-0.04913462326 2.116476536 0.04047374427
-0.04244860262 2.11412096 0.04043010995
-0.03586555645 2.119242668 0.04051737115
-0.02918659709 2.116845369 0.04047374427
-0.02256263979 2.121925831 0.04056100175
-0.01588438079 2.116987228 0.04047374427
-0.009229641408 2.122025728 0.04056100175
-0.002583535155 2.117045164 0.04047374427
0.004103983752 2.122041702 0.04056100175
0.01108541712 2.117016792 0.04047374427
0.01780658588 2.121970892 0.04056100175
0.02401457168 2.116909266 0.04047374427
0.03002787009 2.121833324 0.04056100175
0.03658169135 2.11673069 0.04047374427
0.04335928708 2.121602774 0.04056100175
0.04987993464 2.116459131 0.04047374427
0.05668918416 2.121288538 0.04056100175
0.06363109499 2.118589878 0.04051737115
0.07038556039 2.12087822 0.04056100175
0.07694493979 2.118149042 0.04051737115
0.08359950036 2.117896795 0.04051737115
0.09025224298 2.117623568 0.04051737115
0.09690409899 2.117329836 0.04051737115
0.103691183 2.119510889 0.04056100175
0.1103489175 2.119174719 0.04056100175
0.1171564087 2.121312618 0.04060463607
0.1238197163 2.120934248 0.04060463607
0.1304837912 2.120534658 0.04060463607
0.1369704604 2.117620707 0.04056100175
0.1441704631 2.119647264 0.04060463607
0.150641486 2.116692066 0.04056100175
0.09736080468 1.311076283 0.02646818571
0.1020868048 1.323251963 0.02668634057
0.1057829559 1.322961807 0.02668634057
0.1087991297 1.310176849 0.02646818571
0.1126793474 1.307340145 0.02642455511
0.1136203706 1.27463913 0.02585735172
0.1118440777 1.217075944 0.02485383861
0.107893534 1.14213407 0.02354490943
0.1120158061 1.146759987 0.02363217063
0.1134198681 1.126526713 0.02328312211
0.1158282831 1.116230369 0.02310859784
0.1195252016 1.115839601 0.02310859784
0.2619951069 2.103291273 0.04051737115
0.2699200213 2.112368822 0.04069189355
0.2768919468 2.113987446 0.04073552787
0.2842240632 2.118058443 0.04082278907
0.2912293673 2.119629383 0.04086641967
0.2986082137 2.123651028 0.0409536846
0.3052779734 2.122702599 0.0409536846
0.3126984835 2.126674891 0.04104094207
0.3186094165 2.120742559 0.0409536846
0.3260537088 2.124668598 0.04104094207
0.3323279023 2.121166229 0.0409973152
0.339805454 2.125043869 0.0410845764
0.3460642397 2.121500969 0.04104094207
0.3539959192 2.127794266 0.0411718376
0.3606157005 2.124145985 0.041128207
0.3681681156 2.127924919 0.04121547192
0.3752183318 2.126692057 0.04121547192
0.3819850981 2.128027439 0.0412590988
0.3886681795 2.126816988 0.0412590988
0.3958171606 2.128040552 0.0413027294
0.4025011957 2.12678647 0.0413027294
0.4096663892 2.127963543 0.04134636372
0.4163491726 2.126666069 0.04134636372
0.4235285521 2.12779665 0.04138999432
0.4305790067 2.126380205 0.04138999432
0.4377765357 2.127462864 0.0414336212
0.4444586039 2.126076937 0.0414336212
0.4516668916 2.127112627 0.04147725552
0.4578074813 2.123242617 0.0414336212
0.4655684531 2.126672029 0.04152088612
0.4713189304 2.122843742 0.04147725552
0.4778116047 2.123955011 0.04152088612
0.4848480523 2.122358799 0.04152088612
0.4926698506 2.125689507 0.04160814732
0.4993450642 2.124131441 0.04160814732
0.506608367 2.124980688 0.04165177792
0.513282299 2.123378515 0.04165177792
0.5205574036 2.124180317 0.04169540852
0.5278425813 2.124957561 0.04173904285
0.5351377726 2.125709534 0.04178266972
0.5418138504 2.124017715 0.04178266972
0.5497601628 2.127138853 0.04186993465
0.5568067431 2.125304222 0.04186993465
0.5641373396 2.125957489 0.04191356525
0.5708130002 2.124174833 0.04191356525
0.5788198709 2.127188206 0.04200082645
0.5848253369 2.122952223 0.04195719585
0.5921750665 2.12350893 0.04200082645
0.5988429189 2.121638298 0.04200082645
0.6062035561 2.122146606 0.04204445705
0.3713598251 1.300185084 0.0271226503
0.3740144968 1.294220924 0.0270353891
0.3749694824 1.283531904 0.02686086483
0.3795049191 1.28480494 0.0269044973
0.3813329041 1.276439309 0.02677360363
0.6354780197 2.056075811 0.0410845764
0.6555758715 2.096944571 0.04186993465
0.6621599793 2.09487462 0.04186993465
0.671829164 2.102292776 0.04204445705
0.4797098339 1.494538546 0.03091854788
0.4851955771 1.49539578 0.03096218035
0.4898908138 1.493864179 0.03096218035
0.4945812225 1.492317796 0.03096218035
0.500077188 1.493121266 0.03100581095
0.7198789716 2.112752199 0.0424807705
0.7281630635 2.115199089 0.04256802797
0.7389688492 2.124685049 0.0427861847
0.7456396818 2.122353077 0.0427861847
0.7556943297 2.129406214 0.04296071082
0.7632349133 2.129370689 0.04300434142
0.7707827687 2.129308462 0.0430479683
0.7787064314 2.129084349 0.04309160262
0.7871489525 2.131308556 0.04317886382
0.7943540812 2.131301165 0.04322249442
0.802456975 2.133605719 0.04330975562
0.8109538555 2.135739088 0.04339702055
0.81765908 2.133181095 0.04339702055
0.826182723 2.135255337 0.04348428175
0.8328863382 2.132649422 0.04348428175
0.8414385319 2.134664297 0.04357154667
0.8490763307 2.134327888 0.04361517355
0.8576617837 2.136280537 0.04370243847
0.8653184175 2.1358881 0.04374606907
0.8733496666 2.135316133 0.04378969595
0.8810213804 2.134867668 0.04383333027
0.8886973858 2.134391785 0.04387696087
0.8963771462 2.133889437 0.04392059147
0.9040623307 2.133359671 0.04396422207
0.9117531776 2.132802725 0.04400785267
0.9194504023 2.132218361 0.04405148327
0.927151978 2.131606817 0.0440951176
0.9348596334 2.130967379 0.04413874447
0.9435938001 2.132582188 0.0442260094
0.9502894878 2.129607201 0.0442260094
0.9590470791 2.131160498 0.0443132706
0.9664053917 2.130577803 0.0443569012
0.9723554254 2.127870321 0.0443569012
0.9769215584 2.120274782 0.04426964
0.9793240428 2.108146906 0.0440951176
0.9777342677 2.086821556 0.04374606907
0.9756607413 2.065699339 0.04339702055
0.9734605551 2.044611216 0.0430479683
0.9744166732 2.030302048 0.04282981902
0.9818903804 2.029474974 0.0428734459
0.9926878214 2.035345554 0.0430479683
1.01132822 2.05683279 0.04352791235
1.031234026 2.080456734 0.04405148327
1.050171256 2.101744413 0.0445314236
1.063578248 2.111797571 0.04479321092
1.077057719 2.121787786 0.04505499452
1.086015463 2.122833729 0.04514225945
1.093835473 2.121627808 0.04518589377
1.103189707 2.122414351 0.04527315125
0.622179091 1.189262033 0.02694812603
0.6140731573 1.165286779 0.02651181631
0.6165394783 1.161154389 0.02646818571
0.6175876856 1.154931307 0.02638092265
0.6198084354 1.150902987 0.02633729391
0.62099576 1.144577503 0.02625003085
1.119163632 2.014512777 0.04374606907
1.1525774 2.058843613 0.04470594972
1.168945909 2.072583199 0.04505499452
1.18914485 2.09274435 0.04553493857
1.205726743 2.106307507 0.0458839871
1.222405434 2.119786978 0.04623303562
1.23791647 2.13102603 0.04653844982
1.247148752 2.131430149 0.04662571475
1.255117059 2.129649401 0.04666934162
1.26308763 2.127839327 0.04671297595
1.272718072 2.127919436 0.04680024087
1.280700326 2.126044512 0.04684387147
1.288679719 2.124141455 0.04688749835
1.297971606 2.124337196 0.04697476327
1.307277322 2.124495268 0.04706202447
1.316596985 2.124615908 0.04714928567
1.325931191 2.124697924 0.04723654687
1.335278034 2.124743223 0.0473238118
1.34463799 2.124750614 0.04741106927
1.354011774 2.124719858 0.0474983342
1.363027215 2.124889135 0.0475855954
1.37205708 2.125023127 0.04767286032
1.382840753 2.126971483 0.04780375212
1.392272949 2.126787186 0.04789101332
1.403101206 2.128645897 0.04802190512
1.412564874 2.128380537 0.04810917005
1.423437238 2.130149364 0.04824006185
1.43293035 2.129802942 0.04832732305
1.442435384 2.129417896 0.04841458797
1.453369617 2.131053209 0.04854547977
1.464697599 2.132385492 0.04867637157
1.475685 2.133921623 0.0488072671
1.486692071 2.135411263 0.0489381589
1.497722864 2.136852741 0.0490690507
1.507328749 2.136209011 0.04915631562
1.515489221 2.133494377 0.04919994622
1.526571393 2.134804249 0.04933083802
1.534739017 2.132020712 0.04937446862
1.544379354 2.131224632 0.04946172982
1.555512667 2.132401466 0.04959262162
1.567036271 2.133258104 0.04972351715
1.578217268 2.134334087 0.04985440895
1.589040399 2.135641098 0.04998530075
1.598014355 2.135183811 0.05007256567
1.608108282 2.133853674 0.05015982687
0.976357162 1.285987377 0.031703908
0.9773295522 1.278962731 0.0316166468
0.9798048139 1.27391541 0.03157301247
0.9822587967 1.268864751 0.0315293856
0.9831407666 1.261850238 0.03144212067
0.9870998859 1.258755565 0.03144212067
0.989487052 1.253697038 0.03139849007
0.9934204817 1.250582457 0.03139849007
0.9989186525 1.249397159 0.03144212067
1.753195167 2.13739109 0.05177417397
1.767896175 2.141479492 0.05199232697
1.777824879 2.139747858 0.0520795919
1.787761927 2.137972832 0.0521668531
1.796086311 2.134252548 0.0522104837
1.807651043 2.134302616 0.0523413755
1.817604423 2.132405758 0.05242864043
1.825555205 2.12889576 0.05247227103
1.83477664 2.127560616 0.05255953223
1.116621256 1.284662962 0.0332309939
1.118993521 1.27927804 0.03318735957
1.123006701 1.275756598 0.03318735957
1.127009988 1.272221446 0.03318735957
1.131000996 1.268674731 0.03318735957
1.134980798 1.265115619 0.03318735957
1.138949394 1.26154387 0.03318735957
1.1429075 1.257959127 0.03318735957
1.148552299 1.256196499 0.0332309939
1.98595345 2.146670818 0.05456655845
1.99439764 2.142244577 0.05461018905
2.006635427 2.141073465 0.05474108458
2.016798258 2.138381481 0.05482834578
2.028690577 2.137452841 0.05495923758
2.038861513 2.134671688 0.05504649878
2.050774097 2.13364315 0.0551773943
1.442840815 1.487151265 0.0396883823
1.447505355 1.482611418 0.0396883823
1.452155709 1.478056788 0.0396883823
1.456277966 1.473995447 0.0396883823
1.462673068 1.471176624 0.03973201662
1.551248431 1.436989069 0.04043010995
1.559451342 1.435474515 0.04051737115
1.563953757 1.430567861 0.04051737115
1.397462249 1.271860838 0.0365033187
1.401450753 1.267464519 0.0365033187
1.405425549 1.263055801 0.0365033187
1.409386396 1.25863409 0.0365033187
1.413114548 1.254447103 0.0365033187
1.416830659 1.250248313 0.0365033187
1.664767385 1.42986989 0.04182630405
1.667341471 1.423020005 0.04178266972
1.669889092 1.416168332 0.04173904285
1.666651249 1.404511452 0.04156451672
1.663357615 1.39288795 0.04138999432
1.662174463 1.382601023 0.0412590988
1.658773541 1.371039629 0.0410845764
1.585834503 1.286520243 0.03916481137
1.587914824 1.279972434 0.03912118077
1.576252103 1.262562275 0.03877213225
1.574317455 1.252967 0.03864123672
1.572338223 1.243396521 0.03851034492
1.572289228 1.235383272 0.03842308372
1.572416425 1.227110863 0.03833582252
1.578249574 1.223684072 0.03837945312
1.581870198 1.218998432 0.03837945312
1.587264061 1.21608305 0.03842308372
1.589079022 1.209587932 0.03837945312
1.594873667 1.206085801 0.03842308372
1.596648335 1.199578762 0.03837945312
1.602629066 1.195761323 0.03842308372
1.6124264 1.195152998 0.03855397552
1.622235775 1.194494843 0.03868487105
1.63003242 1.192320585 0.03877213225
1.639860392 1.19156909 0.03890302777
1.647665024 1.189315438 0.03899028897
1.649353743 1.182688117 0.03894665465
3.063288689 2.170464039 0.06905205548
3.072139978 2.162263155 0.06909568608
3.089182615 2.15973115 0.06931383908
3.102123976 2.154275417 0.06944473088
3.123681068 2.153869867 0.06975015253
3.142833233 2.152482986 0.07001193613
3.164077044 2.152395964 0.07031735033
3.185349703 2.152199984 0.07062277198
3.206651688 2.151890993 0.07092818618
3.230066776 2.152850151 0.07127723843
3.251056671 2.152875185 0.07158265263
3.274167538 2.15416193 0.07193169743
3.295593262 2.153395653 0.07223711908
3.319146395 2.153870821 0.07258617133
3.334315777 2.148826122 0.07276069373
3.353704214 2.146390676 0.07302247733
2.522249937 1.595284939 0.05561370403
2.516913891 1.580308914 0.0553955473
2.517616272 1.569762826 0.0553082861
2.520405054 1.560538411 0.0552646555
2.518893719 1.548707128 0.0551337637
2.515192986 1.535608649 0.05495923758
2.51143527 1.522548676 0.05478471518
2.507620096 1.509527683 0.05461018905
2.503748894 1.496544361 0.05443566665
2.501974583 1.484869123 0.05430477113
2.497993469 1.471958995 0.05413024873
2.494208097 1.458654881 0.0539557226
2.487948418 1.444576025 0.0537375696
2.483792782 1.431793332 0.0535630472
2.475233078 1.416583776 0.05330125988
2.466599941 1.401444674 0.05303947255
2.459840536 1.388019681 0.05282131955
2.453259468 1.374220967 0.05260316283
2.450760365 1.363315225 0.05247227103
2.452839375 1.354407668 0.05242864043
2.459278822 1.34788835 0.05247227103
2.467901707 1.342527747 0.05255953223
2.478719473 1.338305116 0.05269042403
2.491742611 1.335199594 0.05286494642
2.504771471 1.332024336 0.05303947255
2.515588999 1.327623606 0.05317036808
2.528623343 1.324317694 0.05334489048
2.541888475 1.320503354 0.0535194166
2.554931402 1.31705606 0.053693939
2.567976475 1.313540101 0.05386846513
2.581023216 1.309957504 0.05404298753
2.596309662 1.307421684 0.05426114425
2.607124567 1.302585125 0.05439203605
2.617935658 1.297692299 0.05452292785
2.626493931 1.29165113 0.05461018905
2.639541149 1.287744045 0.05478471518
2.645828009 1.280525088 0.05482834578
2.671907663 1.272405744 0.0551773943
2.680198908 1.266592026 0.0552646555
2.683945656 1.258633018 0.0552646555
4.919978619 2.259534597 0.09802304953
4.920222759 2.240971088 0.09789215028
4.924958229 2.224479198 0.09784851968
4.932305813 2.208137035 0.09784851968
4.948367596 2.196666956 0.09802304953
4.969361782 2.1862607 0.09828483313
5.005637646 2.184441566 0.09885203838
5.046917915 2.183522224 0.09950650483
5.097437382 2.186290503 0.1003354937
5.143419743 2.186812878 0.1010772139
5.194065094 2.189002991 0.1019062102
5.242466927 2.189934731 0.1026915684
5.293236732 2.191538095 0.1035205573
5.34406662 2.192843676 0.1043495387
5.394957542 2.193851471 0.105178535
5.448608875 2.194540501 0.1060511544
5.501944542 2.195851803 0.1069237739
5.539055824 2.190450907 0.1074909791
5.57851553 2.185746431 0.108101815
5.608291626 2.178193092 0.108538121
3.366500616 1.301449895 0.06652145833
3.372910261 1.291753292 0.06656508893
3.376951456 1.281151175 0.06656508893
3.380959511 1.270536542 0.06656508893
3.384933949 1.259909272 0.06656508893
6.082005024 2.232682705 0.1166098639
6.11719799 2.223762512 0.1171334311
6.164545059 2.217786789 0.1178751588
6.209181309 2.211764097 0.1185732558
6.275451183 2.21183753 0.1196640283
6.319769859 2.206323147 0.1203621253
6.409404755 2.214898825 0.1218892112
6.456559658 2.208440781 0.1226309389
6.55111599 2.217661619 0.1242452934
6.600736618 2.211292505 0.1250306517
6.676493168 2.213246822 0.1262959391
8.969117165 2.906862497 0.1680944562
8.985348701 2.88095355 0.168225348
8.994850159 2.851146221 0.168225348
8.984677315 2.816909313 0.1678763032
8.990604401 2.789505482 0.1678326577
8.97206974 2.75633812 0.167352736
8.932833672 2.713665247 0.1664801091
8.548564911 2.568128824 0.1593246311
8.623707771 2.561104536 0.1605462879
8.737277985 2.564851522 0.1624660492
8.005642891 2.323762655 0.1490277052
8.024923325 2.302024364 0.1492458582
8.03491497 2.276087046 0.1492894888
8.054069519 2.254180908 0.1495076567
8.123774529 2.246101379 0.1506420523
8.277933121 2.260547876 0.1533035487
8.393633842 2.263683319 0.1552669406
8.516683578 2.268030167 0.1573612243
8.576967239 2.255181789 0.1583210975
8.903478622 2.310728788 0.1640804112
8.922804832 2.285834789 0.1642985642
8.983273506 2.271200418 0.1652584374
9.133498192 2.278497219 0.1678326577
9.203735352 2.265252113 0.1689670831
9.225773811 2.238243103 0.1692288518
12.88269901 3.078108072 0.2347190231
12.88690567 3.038733244 0.2346317619
12.89047432 3.001596689 0.2345444858
12.89496613 2.959973335 0.2344572246
12.89932442 2.918351412 0.2343699634
12.90110874 2.87618947 0.2342390716
12.90519905 2.83456707 0.2341518104
12.9042654 2.791906595 0.233977288
12.90563679 2.749798775 0.2338463962
12.90489483 2.704949856 0.2336718738
12.90843296 2.663388014 0.2335845977
12.90938854 2.62132597 0.2334537208
12.91755962 2.580759525 0.2334537208
12.92560291 2.54016757 0.2334537208
13.34834671 2.579359055 0.2408273518
13.36620808 2.539271832 0.2410018742
13.39378071 2.500918865 0.2413509339
13.4187851 2.461968422 0.2416563481
13.44367504 2.422892094 0.2419617623
13.46845245 2.383683443 0.2422671765
14.78726864 2.517627478 0.2653479874
14.81483173 2.474439383 0.2656970322
14.82457161 2.430888176 0.2657406628
14.8461132 2.39184618 0.2660024464
14.86383915 2.344158411 0.2661769688
15.2145443 2.350238085 0.2722416818
15.78789043 2.387624979 0.2822331786
15.75574589 2.332188845 0.281535089
15.90896416 2.303716898 0.2841093242
18.05564308 2.381836653 0.321413815
18.06303787 2.325104952 0.321413815
19.60081291 2.397010565 0.3482033014
19.61610031 2.332878113 0.3483341932
19.64568138 2.273814917 0.3487268388
19.65062523 2.208384514 0.3486832082
15.17692661 1.566142917 0.269841969
15.19669724 1.519932866 0.2701037824
15.24800777 1.431012511 0.2708455026
15.26961327 1.387337327 0.2711509168
15.29381943 1.341087818 0.2714999616
15.32037544 1.294915676 0.271892637
9.405730247 0.05868856609 0.1677017808
9.40336895 0.02913633548 0.1676581502
2.068020582 -0.001191393822 -0.4455593228
2.070446968 -0.0077104019 -0.4461012483
2.070412636 -0.01421485655 -0.4461012483
2.070357561 -0.02071916685 -0.4461012483
2.070282459 -0.02722373419 -0.4461012483
2.070179939 -0.03408517689 -0.4461012483
2.072503328 -0.0406528227 -0.4466432035
2.072365284 -0.04716357216 -0.4466432035
2.074646235 -0.0537500903 -0.4471851587
2.074467182 -0.06026750803 -0.4471851587
2.076706409 -0.0668758899 -0.4477271438
2.076486111 -0.07339971513 -0.4477271438
2.07624507 -0.07992188632 -0.4477271438
2.073560953 -0.08596774191 -0.4471851587
2.073297024 -0.09212066978 -0.4471851587
2.070559978 -0.09850465506 -0.4466432035
2.070240498 -0.1050090194 -0.4466432035
2.069900274 -0.1115123332 -0.4466432035
2.069539785 -0.1180145591 -0.4466432035
2.069158792 -0.1245156303 -0.4466432035
2.068757534 -0.1310154498 -0.4466432035
2.068335533 -0.1375139952 -0.4466432035
2.070327282 -0.1441937387 -0.4471851587
2.069863796 -0.150697127 -0.4471851587
2.071812868 -0.1573973745 -0.4477271438
2.07371068 -0.1644690335 -0.4482690394
2.075615406 -0.1711998135 -0.4488109946
2.07506752 -0.1777196825 -0.4488109946
2.076928616 -0.18446666 -0.4493529797
2.07390976 -0.1907541305 -0.4488109946
2.070872068 -0.1970244497 -0.4482690394
2.070242882 -0.2035293132 -0.4482690394
2.069593191 -0.21003218 -0.4482690394
2.068922997 -0.2165329456 -0.4482690394
2.070657492 -0.2233052403 -0.4488109946
2.069986105 -0.2294479907 -0.4488109946
2.069296122 -0.2355896831 -0.4488109946
2.066123247 -0.2417928278 -0.4482690394
2.065353632 -0.2482825369 -0.4482690394
2.059722424 -0.2541461885 -0.4471851587
2.061333418 -0.2609356344 -0.4477271438
2.060456276 -0.2677660584 -0.4477271438
2.062022686 -0.2745766044 -0.4482690394
2.061100483 -0.2814092338 -0.4482690394
2.06025672 -0.2875266969 -0.4482690394
2.061757565 -0.2943555415 -0.4488109946
2.060822487 -0.3008312881 -0.4488109946
2.059867382 -0.3073040843 -0.4488109946
2.058891773 -0.3137738109 -0.4488109946
2.057895899 -0.3202404082 -0.4488109946
2.054471254 -0.3263082504 -0.4482690394
2.053436041 -0.3327609599 -0.4482690394
2.052380562 -0.3392108083 -0.4482690394
2.05124402 -0.3460110724 -0.4482690394
2.052550316 -0.3528831899 -0.4488109946
2.051431417 -0.3593297303 -0.4488109946
2.050292492 -0.3657727242 -0.4488109946
2.046734333 -0.3717630804 -0.4482690394
2.045556307 -0.3781898618 -0.4482690394
2.044425011 -0.3842536509 -0.4482690394
2.043344259 -0.3899664879 -0.4482690394
2.042109013 -0.3963839114 -0.4482690394
2.040853739 -0.402797401 -0.4482690394
2.039578199 -0.4092069268 -0.4482690394
2.038282633 -0.4156124592 -0.4482690394
2.036966801 -0.4220138192 -0.4482690394
2.035630941 -0.4284110963 -0.4482690394
2.036659002 -0.4353269339 -0.4488109946
2.035204172 -0.4420783222 -0.4488109946
2.036185741 -0.449008137 -0.4493529797
2.037143946 -0.455948472 -0.4498949349
2.035701513 -0.462346077 -0.4498949349
2.038989305 -0.4698603451 -0.4509788156
2.035129547 -0.47569561 -0.4504368305
2.035996914 -0.4826623201 -0.4509788156
2.029731035 -0.4878903031 -0.4498949349
2.030555964 -0.4948548377 -0.4504368305
2.02425909 -0.500035882 -0.4493529797
2.022678137 -0.5063932538 -0.4493529797
2.018625498 -0.5124809146 -0.4488109946
2.017005682 -0.5188224912 -0.4488109946
2.015457153 -0.5248048306 -0.4488109946
2.01389122 -0.5307834148 -0.4488109946
2.012213707 -0.5371075869 -0.4488109946
2.010516644 -0.5434265137 -0.4488109946
2.001747847 -0.5477698445 -0.4471851587
2.000017166 -0.5540558696 -0.4471851587
1.991227627 -0.5583218932 -0.4455593228
1.515551686 -0.4376577139 -0.3366271555
1.495467424 -0.43680951 -0.3322915733
1.491752267 -0.4407976568 -0.3317495883
1.485616088 -0.4443062544 -0.3306657076
1.484212756 -0.4489746392 -0.3306657076
1.480466366 -0.452904582 -0.3301237524
1.476709962 -0.4568153918 -0.3295817971
1.475267529 -0.4614523351 -0.3295817971
1.471488953 -0.4653322101 -0.3290398717
1.470019817 -0.4699527025 -0.3290398717
1.466219187 -0.4738014638 -0.3284978867
1.464723468 -0.4784053564 -0.3284978867
1.458589435 -0.4814403057 -0.327414006
1.457154512 -0.4857659042 -0.327414006
1.45339942 -0.4892928004 -0.326872021
1.451855183 -0.4938563406 -0.326872021
1.447994232 -0.4976051748 -0.3263300955
1.444124103 -0.5013346076 -0.3257881403
1.440244913 -0.5050446987 -0.3252461851
1.436356544 -0.5087354183 -0.3247042298
1.432459354 -0.5124065876 -0.3241623044
1.428553224 -0.5160583258 -0.3236203194
1.426924944 -0.5205436945 -0.3236203194
1.418430805 -0.5224431157 -0.3219944835
1.414501309 -0.5260292292 -0.3214525282
1.41056335 -0.5295957923 -0.3209106028
1.406523943 -0.5333883166 -0.3203686178
1.404841185 -0.5378043652 -0.3203686178
1.403144717 -0.5422151685 -0.3203686178
1.401434422 -0.5466205478 -0.3203686178
1.397446036 -0.5501099825 -0.3198266923
1.395710826 -0.5544974208 -0.3198266923
1.391703486 -0.5579544902 -0.3192847371
1.389943719 -0.5623239279 -0.3192847371
1.385917783 -0.5657477975 -0.3187427819
1.384232998 -0.5698573589 -0.3187427819
1.382535934 -0.5739634037 -0.3187427819
1.37838161 -0.5775812268 -0.3182008266
1.376559854 -0.5819119811 -0.3182008266
1.372487187 -0.5852597356 -0.3176589012
1.366172314 -0.5876066685 -0.3165749907
1.359856367 -0.5899197459 -0.3154910803
1.355767727 -0.5931939483 -0.3149491251
1.349446774 -0.5954463482 -0.3138652146
1.347569466 -0.5996828079 -0.3138652146
1.343459845 -0.6028974056 -0.3133232594
1.341559172 -0.6071149707 -0.3133232594
1.339645147 -0.6113265753 -0.3133232594
1.33771801 -0.6155322194 -0.3133232594
1.333571672 -0.6186879873 -0.3127813339
1.33151257 -0.6231068969 -0.3127813339
1.327349186 -0.6262288094 -0.3122393489
1.325375199 -0.6303957105 -0.3122393489
1.321195722 -0.6334846616 -0.3116974235
1.319199085 -0.6376321912 -0.3116974235
1.317189336 -0.6417734027 -0.3116974235
1.312984586 -0.6448144913 -0.3111554682
1.31106627 -0.6487036347 -0.3111554682
1.307072401 -0.651262939 -0.310613513
1.302733898 -0.6544778347 -0.3100715578
1.300670624 -0.658570528 -0.3100715578
1.298595309 -0.6626534462 -0.3100715578
1.29434526 -0.66559726 -0.3095296323
1.292247891 -0.6696603298 -0.3095296323
1.28798306 -0.6725705266 -0.3089876473
1.285863757 -0.6766135097 -0.3089876473
1.283731699 -0.680649817 -0.3089876473
1.279443383 -0.6835130453 -0.3084457219
1.277289748 -0.6875291467 -0.3084457219
1.272987008 -0.6903586388 -0.3079037666
1.268679142 -0.6931684017 -0.3073618114
1.266374588 -0.6973679662 -0.3073618114
1.264176488 -0.7013466358 -0.3073618114
1.261844754 -0.7055312395 -0.3073618114
1.259745002 -0.7092753053 -0.3073618114
1.257510424 -0.7132294178 -0.3073618114
1.253153801 -0.7159494758 -0.3068198562
1.25089848 -0.7198829055 -0.3068198562
1.246529102 -0.7225680947 -0.3062779009
1.24437964 -0.7262634635 -0.3062779009
1.240124345 -0.728700757 -0.3057359457
1.237829089 -0.7325929999 -0.3057359457
1.235521317 -0.7364782691 -0.3057359457
1.233201504 -0.7403560877 -0.3057359457
1.230869651 -0.7442266345 -0.3057359457
1.228525519 -0.7480897903 -0.3057359457
1.226169229 -0.7519456744 -0.3057359457
1.223800898 -0.7557940483 -0.3057359457
1.221420288 -0.7596355677 -0.3057359457
1.216837645 -0.7623664141 -0.3051940203
1.212381482 -0.7648704648 -0.304652065
1.207922935 -0.7673509717 -0.3041101098
1.203460455 -0.769810915 -0.3035681546
1.198994756 -0.7722505331 -0.3030261993
1.196562648 -0.7760134935 -0.3030261993
1.194118857 -0.7797687054 -0.3030261993
1.193691969 -0.7848728299 -0.3035681546
1.189195871 -0.7872561812 -0.3030261993
1.188736796 -0.7923580408 -0.3035681546
1.184088349 -0.7949160933 -0.3030261993
1.179573059 -0.7972519398 -0.3024842441
1.175195217 -0.7993599772 -0.3019423187
1.172817945 -0.8028442264 -0.3019423187
1.168291211 -0.8051242828 -0.3014003336
1.167750359 -0.810197413 -0.3019423187
1.165199399 -0.8138619661 -0.3019423187
1.166607499 -0.8203575611 -0.3030261993
1.163882017 -0.824218154 -0.3030261993
1.161285639 -0.8278737068 -0.3030261993
1.154735684 -0.8286412358 -0.3019423187
1.150159597 -0.830820322 -0.3014003336
1.141655922 -0.8300774693 -0.2997744977
1.139042616 -0.8336600065 -0.2997744977
1.138371348 -0.8386973143 -0.300316453
1.143526316 -0.8481458426 -0.3024842441
1.148633122 -0.8576349616 -0.304652065
1.153691411 -0.8671645522 -0.3068198562
1.156766295 -0.8752468824 -0.3084457219
1.159801364 -0.8833574653 -0.3100715578
1.158792496 -0.8886951208 -0.310613513
1.157913923 -0.8938404918 -0.3111554682
1.158776045 -0.9006963968 -0.3122393489
1.631950378 -1.282101035 -0.4471851587
1.6338588 -1.291508317 -0.4488109946
1.635725141 -1.300938964 -0.4504368305
1.635424614 -1.309141874 -0.4515207708
1.636980772 -1.318896651 -0.4531466067
1.634716749 -1.32558012 -0.4536885619
1.630544305 -1.330709219 -0.4536885619
1.626355767 -1.335825205 -0.4536885619
1.622151136 -1.340927839 -0.4536885619
1.617930412 -1.346017361 -0.4536885619
1.613693833 -1.351093531 -0.4536885619
1.6094414 -1.356156468 -0.4536885619
1.603319764 -1.35961771 -0.4531466067
1.60088861 -1.36624217 -0.4536885619
1.594745278 -1.369665146 -0.4531466067
1.592033982 -1.376548648 -0.4536885619
1.587700129 -1.381546259 -0.4536885619
1.583351851 -1.386527419 -0.4536885619
1.580810785 -1.393118024 -0.454230547
1.576426506 -1.398077369 -0.454230547
1.572026491 -1.403022885 -0.454230547
1.56761086 -1.407954812 -0.454230547
1.564981937 -1.414518595 -0.4547725022
1.560530424 -1.419428229 -0.4547725022
1.55606389 -1.424322844 -0.4547725022
1.551831126 -1.428933501 -0.4547725022
1.547583938 -1.433532357 -0.4547725022
1.543072701 -1.438387275 -0.4547725022
1.538546205 -1.443228126 -0.4547725022
1.531987906 -1.446634054 -0.454230547
1.527434111 -1.451442599 -0.454230547
1.524621844 -1.457930088 -0.4547725022
1.520033956 -1.462712646 -0.4547725022
1.515431285 -1.467480779 -0.4547725022
1.510813713 -1.472234249 -0.4547725022
1.506181002 -1.476973414 -0.4547725022
1.501533508 -1.481697917 -0.4547725022
1.496871233 -1.486407757 -0.4547725022
1.492194057 -1.491103053 -0.4547725022
1.487502337 -1.495783567 -0.4547725022
1.482795596 -1.500449777 -0.4547725022
1.477813721 -1.505355358 -0.4547725022
1.471380353 -1.508237481 -0.454230547
1.46663487 -1.51285243 -0.454230547
1.461874843 -1.517452598 -0.454230547
1.457100511 -1.522037745 -0.454230547
1.452311635 -1.526607871 -0.454230547
1.447508574 -1.531162858 -0.454230547
1.443495035 -1.534947157 -0.454230547
1.438665748 -1.539474368 -0.454230547
1.433821917 -1.543986917 -0.454230547
1.42705071 -1.546927452 -0.4536885619
1.422182083 -1.551405787 -0.4536885619
1.417301178 -1.555866003 -0.4536885619
1.412406325 -1.560310841 -0.4536885619
1.407497406 -1.564740419 -0.4536885619
1.402574778 -1.569154501 -0.4536885619
1.399249434 -1.575386286 -0.454230547
1.394293189 -1.57977438 -0.454230547
1.389323235 -1.584146857 -0.454230547
1.384339809 -1.588503838 -0.454230547
1.379342556 -1.592844963 -0.454230547
1.375913382 -1.599029183 -0.4547725022
1.372181416 -1.605443358 -0.4553143978
1.370269179 -1.613486052 -0.4563983381
1.365193486 -1.617782831 -0.4563983381
1.361662745 -1.623942018 -0.4569402933
1.355001807 -1.626328588 -0.4563983381
1.349886417 -1.63057673 -0.4563983381
1.343501687 -1.632681966 -0.4558563828
1.338651299 -1.636661053 -0.4558563828
1.332259774 -1.63872385 -0.4553143978
1.326530933 -1.643365145 -0.4553143978
1.319844723 -1.645612717 -0.4547725022
1.314668417 -1.649751067 -0.4547725022
1.309479117 -1.653872967 -0.4547725022
1.304276824 -1.657978773 -0.4547725022
1.299061656 -1.662068009 -0.4547725022
1.295320392 -1.668076277 -0.4553143978
1.290073633 -1.67213738 -0.4553143978
1.286288381 -1.67812705 -0.4558563828
1.282186866 -1.684330106 -0.4563983381
1.278349042 -1.690306783 -0.4569402933
1.273032427 -1.69431448 -0.4569402933
1.267703414 -1.698305488 -0.4569402933
1.26091826 -1.700311661 -0.4563983381
1.255570292 -1.704264641 -0.4563983381
1.247347832 -1.70424664 -0.4553143978
1.240562916 -1.706175685 -0.4547725022
1.23519671 -1.71006465 -0.4547725022
1.228406429 -1.711945534 -0.454230547
1.223321557 -1.715582728 -0.454230547
1.218225241 -1.719205618 -0.454230547
1.212818146 -1.723024249 -0.454230547
1.208787203 -1.728833318 -0.4547725022
1.203349829 -1.732622504 -0.4547725022
1.197597861 -1.73660326 -0.4547725022
1.192136168 -1.740357041 -0.4547725022
1.186662793 -1.744093776 -0.4547725022
1.181177735 -1.747813106 -0.4547725022
1.175680876 -1.751515269 -0.4547725022
1.170172572 -1.755200148 -0.4547725022
1.164652824 -1.758867621 -0.4547725022
1.159121513 -1.762517691 -0.4547725022
1.15357852 -1.766150594 -0.4547725022
1.148024321 -1.769765973 -0.4547725022
1.14245832 -1.773364305 -0.4547725022
1.136574268 -1.777140141 -0.4547725022
1.130983114 -1.780704498 -0.4547725022
1.125383496 -1.78424871 -0.4547725022
1.119772434 -1.787775517 -0.4547725022
1.114150405 -1.791284561 -0.4547725022
1.108518243 -1.794775248 -0.4547725022
1.103188038 -1.798056364 -0.4547725022
1.097847342 -1.801322699 -0.4547725022
1.091870546 -1.804950595 -0.4547725022
1.086192489 -1.808374166 -0.4547725022
1.080505848 -1.811777711 -0.4547725022
1.076040983 -1.817269683 -0.4553143978
1.071552515 -1.822751641 -0.4558563828
1.067039967 -1.828223348 -0.4563983381
1.061291337 -1.831566453 -0.4563983381
1.055531979 -1.834891438 -0.4563983381
1.04976213 -1.838198543 -0.4563983381
1.042789698 -1.839357972 -0.4558563828
1.037006021 -1.842625022 -0.4558563828
1.030032754 -1.843737125 -0.4553143978
1.023915768 -1.847139955 -0.4553143978
1.018105268 -1.850349903 -0.4553143978
1.012287259 -1.853539228 -0.4553143978
1.006459117 -1.856710434 -0.4553143978
1.00062108 -1.859863043 -0.4553143978
0.9947733283 -1.862997413 -0.4553143978
0.988915801 -1.866113305 -0.4553143978
0.9841732979 -1.871376514 -0.4558563828
0.9782921076 -1.874456763 -0.4558563828
0.9727231264 -1.877354026 -0.4558563828
0.9668202996 -1.880400658 -0.4558563828
0.9609079957 -1.883428693 -0.4558563828
0.9549864531 -1.886438131 -0.4558563828
0.9490554929 -1.889428973 -0.4558563828
0.9431148767 -1.892401218 -0.4558563828
0.9371649623 -1.895354748 -0.4558563828
0.9312060475 -1.898289561 -0.4558563828
0.9252377152 -1.901205659 -0.4558563828
0.9192602634 -1.904103041 -0.4558563828
0.9132736325 -1.906981826 -0.4558563828
0.9069476724 -1.909997463 -0.4558563828
0.9009400606 -1.912839532 -0.4558563828
0.8939048052 -1.913443923 -0.4553143978
0.8878895044 -1.916242599 -0.4553143978
0.881864965 -1.91902256 -0.4553143978
0.8758320212 -1.921783447 -0.4553143978
0.8697901368 -1.924525499 -0.4553143978
0.8647261262 -1.92948103 -0.4558563828
0.8586603403 -1.932188034 -0.4558563828
0.8525862694 -1.934875727 -0.4558563828
0.847472012 -1.939783931 -0.4563983381
0.8417093158 -1.942292452 -0.4563983381
0.835603416 -1.944927216 -0.4563983381
0.8285444975 -1.945292354 -0.4558563828
0.8224289417 -1.947885633 -0.4558563828
0.8163055778 -1.950459719 -0.4558563828
0.8101739287 -1.953014612 -0.4558563828
0.8040342331 -1.955550194 -0.4558563828
0.7978868484 -1.958066463 -0.4558563828
0.7917314172 -1.96056354 -0.4558563828
0.7855683565 -1.963041186 -0.4558563828
0.7799416184 -1.967908859 -0.4563983381
0.773755312 -1.97034955 -0.4563983381
0.7675614357 -1.972770572 -0.4563983381
0.7622259855 -1.977454066 -0.4569402933
0.7560098171 -1.979838967 -0.4569402933
0.7497861385 -1.982204318 -0.4569402933
0.7435553074 -1.984549999 -0.4569402933
0.7373171449 -1.98687613 -0.4569402933
0.7310712934 -1.989182949 -0.4569402933
0.7244739532 -1.991594076 -0.4569402933
0.7182119489 -1.993861437 -0.4569402933
0.7122961879 -1.995981455 -0.4569402933
0.7067146897 -1.997965932 -0.4569402933
0.7000884414 -2.000296354 -0.4569402933
0.6937981844 -2.002487659 -0.4569402933
0.6875039339 -2.004657507 -0.4569402933
0.6804302335 -2.004492283 -0.4563983381
0.6748946309 -2.008937597 -0.4569402933
0.667822361 -2.008728027 -0.4563983381
0.6622588634 -2.013138294 -0.4569402933
0.6559310555 -2.01520896 -0.4569402933
0.6495970488 -2.017259598 -0.4569402933
0.6432563663 -2.019290686 -0.4569402933
0.636909306 -2.021301508 -0.4569402933
0.6305558085 -2.023292542 -0.4569402933
0.6238460541 -2.025370598 -0.4569402933
0.6167782545 -2.024983883 -0.4563983381
0.6104136705 -2.026911259 -0.4563983381
0.6040428281 -2.028819084 -0.4563983381
0.5976660252 -2.030706882 -0.4563983381
0.5912835598 -2.032574177 -0.4563983381
0.5848950148 -2.034421921 -0.4563983381
0.5791559219 -2.038600445 -0.4569402933
0.5727484822 -2.040409803 -0.4569402933
0.5663359165 -2.042198896 -0.4569402933
0.5599207878 -2.043966055 -0.4569402933
0.5538496971 -2.04562068 -0.4569402933
0.5474205613 -2.047350407 -0.4569402933
0.5409861207 -2.049060106 -0.4569402933
0.5345460176 -2.05074954 -0.4569402933
0.5281009078 -2.052418709 -0.4569402933
0.5216503739 -2.05406785 -0.4569402933
0.5151948929 -2.055696249 -0.4569402933
0.508734107 -2.057304859 -0.4569402933
0.5022682548 -2.058892727 -0.4569402933
0.4957977831 -2.060460567 -0.4569402933
0.4893220961 -2.062007904 -0.4569402933
0.4833851457 -2.065914154 -0.4574822187
0.476531595 -2.067505836 -0.4574822187
0.4705623984 -2.07137537 -0.458024174
0.4640525877 -2.072843552 -0.458024174
0.4570249021 -2.071905136 -0.4574822187
0.4505137205 -2.073330641 -0.4574822187
0.44399786 -2.074735641 -0.4574822187
0.4369871318 -2.073729753 -0.4569402933
0.4304700792 -2.075092554 -0.4569402933
0.4239494205 -2.076434374 -0.4569402933
0.4169594347 -2.075359106 -0.4563983381
0.4107956588 -2.076588869 -0.4563983381
0.4042699635 -2.077869177 -0.4563983381
0.3981861174 -2.081528425 -0.4569402933
0.3916449845 -2.082769156 -0.4569402933
0.3850997388 -2.083989382 -0.4569402933
0.3785509467 -2.085188627 -0.4569402933
0.3719979823 -2.086367846 -0.4569402933
0.3650806844 -2.087588549 -0.4569402933
0.3585173786 -2.088726521 -0.4569402933
0.3519535959 -2.089842558 -0.4569402933
0.3453865945 -2.090937853 -0.4569402933
0.3388159275 -2.092012644 -0.4569402933
0.332242161 -2.093066692 -0.4569402933
0.3256648481 -2.094100237 -0.4569402933
0.3190843463 -2.095113039 -0.4569402933
0.3125009239 -2.096105099 -0.4569402933
0.3055745363 -2.094659567 -0.4563983381
0.2989923954 -2.095609188 -0.4563983381
0.2924070656 -2.096538305 -0.4563983381
0.2854567766 -2.097495079 -0.4563983381
0.2788631618 -2.098382473 -0.4563983381
0.2722732127 -2.099246979 -0.4563983381
0.266333133 -2.102469921 -0.4569402933
0.2597271204 -2.10329628 -0.4569402933
0.2531180382 -2.104101658 -0.4569402933
0.2465064675 -2.10488677 -0.4569402933
0.2398927063 -2.105650663 -0.4569402933
0.2332763374 -2.106393814 -0.4569402933
0.2266579121 -2.107116461 -0.4569402933
0.2197962999 -2.105389357 -0.4563983381
0.21318084 -2.106069326 -0.4563983381
0.2065635473 -2.106728792 -0.4563983381
0.1999434978 -2.107367516 -0.4563983381
0.1931673735 -2.110449314 -0.4569402933
0.1865330189 -2.111046791 -0.4569402933
0.1800946444 -2.114054918 -0.4574822187
0.1734521538 -2.114610434 -0.4574822187
0.166987136 -2.117578983 -0.458024174
0.1601623744 -2.115658283 -0.4574822187
0.1535149664 -2.116151094 -0.4574822187
0.1467100829 -2.114187479 -0.4569402933
0.1400675774 -2.11463809 -0.4569402933
0.1334243864 -2.115067244 -0.4569402933
0.1271481365 -2.115453959 -0.4569402933
0.1208701357 -2.115822315 -0.4569402933
0.114341177 -2.118628979 -0.4574822187
0.1076849028 -2.118977785 -0.4574822187
0.1010273173 -2.119305611 -0.4574822187
0.09436827898 -2.119612694 -0.4574822187
0.0873426944 -2.119912863 -0.4574822187
0.08059925586 -2.117738724 -0.4569402933
0.07394568622 -2.117981434 -0.4569402933
0.06729140133 -2.118203402 -0.4569402933
0.06063669547 -2.11840415 -0.4569402933
0.05403054506 -2.121024132 -0.4574822187
0.04736704379 -2.121183395 -0.4574822187
0.04070282355 -2.121321678 -0.4574822187
0.03403820097 -2.121439219 -0.4574822187
0.02737349458 -2.12153554 -0.4574822187
0.02070826665 -2.121611118 -0.4574822187
0.01404283289 -2.121665716 -0.4574822187
0.007377513684 -2.121699333 -0.4574822187
0.0003415880783 -2.121712208 -0.4574822187
-0.006324060727 -2.121702909 -0.4574822187
-0.01298871916 -2.121672153 -0.4574822187
-0.01928365789 -2.121624231 -0.4574822187
-0.02557935752 -2.121557951 -0.4574822187
-0.03224439546 -2.121467113 -0.4574822187
-0.03890885785 -2.121355295 -0.4574822187
-0.04557319731 -2.121222734 -0.4574822187
-0.05223754048 -2.121069193 -0.4574822187
-0.05926732346 -2.120883465 -0.4574822187
-0.06593284011 -2.120687485 -0.4574822187
-0.07259494066 -2.120469809 -0.4574822187
-0.0791521892 -2.117793322 -0.4569402933
-0.08591668308 -2.119971752 -0.4574822187
-0.09245723486 -2.117254019 -0.4569402933
-0.09923503548 -2.119390249 -0.4574822187
-0.105758369 -2.116631269 -0.4569402933
-0.1124075353 -2.116288662 -0.4569402933
-0.1189054996 -2.113489151 -0.4563983381
-0.1255447268 -2.113105059 -0.4563983381
-0.1321829408 -2.112700462 -0.4563983381
-0.1391847432 -2.112249613 -0.4563983381
-0.1458234787 -2.111802816 -0.4563983381
-0.1528217494 -2.111306906 -0.4563983381
-0.1588917524 -2.108411789 -0.4558563828
-0.1651469469 -2.107931137 -0.4558563828
-0.1716119945 -2.10986352 -0.4563983381
-0.1782395542 -2.109313965 -0.4563983381
-0.1848651171 -2.108743668 -0.4563983381
-0.1917226166 -2.110581875 -0.4569402933
-0.1983525753 -2.109969139 -0.4569402933
-0.2053446919 -2.109299183 -0.4569402933
-0.2119736224 -2.108644247 -0.4569402933
-0.2185971737 -2.107967854 -0.4569402933
-0.2252183259 -2.107270718 -0.4569402933
-0.2318372428 -2.106552839 -0.4569402933
-0.2384541184 -2.10581398 -0.4569402933
-0.2450683862 -2.105054379 -0.4569402933
-0.2516804934 -2.104274273 -0.4569402933
-0.2582898736 -2.103473186 -0.4569402933
-0.2648969591 -2.102651358 -0.4569402933
-0.2715013921 -2.101808786 -0.4569402933
-0.2781034112 -2.100945473 -0.4569402933
-0.2850651443 -2.100011349 -0.4569402933
-0.2916645408 -2.099105835 -0.4569402933
-0.2982577085 -2.098179102 -0.4569402933
-0.3048477173 -2.097231865 -0.4569402933
-0.3114349544 -2.096263647 -0.4569402933
-0.3172875047 -2.09538579 -0.4569402933
-0.3238686323 -2.09437871 -0.4569402933
-0.3304468095 -2.093350887 -0.4569402933
-0.3370217085 -2.092302561 -0.4569402933
-0.3431847692 -2.088827133 -0.4563983381
-0.3501612842 -2.090143681 -0.4569402933
-0.3567259908 -2.089033365 -0.4569402933
-0.363286972 -2.087902308 -0.4569402933
-0.3698446155 -2.086750746 -0.4569402933
-0.3768443167 -2.087977648 -0.4574822187
-0.382949084 -2.084385633 -0.4569402933
-0.3903167844 -2.08550024 -0.4574822187
-0.3968698382 -2.084264278 -0.4574822187
-0.4038921893 -2.085400581 -0.458024174
-0.4104417861 -2.084121466 -0.458024174
-0.4174788892 -2.085212469 -0.4585661292
-0.4240275621 -2.083890676 -0.4585661292
-0.4305723011 -2.082548141 -0.4585661292
-0.4365984201 -2.078799248 -0.458024174
-0.4426055253 -2.075033188 -0.4574822187
-0.4485928416 -2.0712502 -0.4569402933
-0.4550936818 -2.069830418 -0.4569402933
-0.4612368941 -2.068471193 -0.4569402933
-0.4677289724 -2.067011833 -0.4569402933
-0.4742247462 -2.065532446 -0.4569402933
-0.4807113111 -2.064032555 -0.4569402933
-0.4871933758 -2.062511921 -0.4569402933
-0.4936706424 -2.06097126 -0.4569402933
-0.50014323 -2.059410095 -0.4569402933
-0.5069659948 -2.057740211 -0.4569402933
-0.5134314895 -2.056137562 -0.4569402933
-0.5198885798 -2.054514408 -0.4569402933
-0.5263403654 -2.052870989 -0.4569402933
-0.5327871442 -2.051207304 -0.4569402933
-0.5392286181 -2.049523354 -0.4569402933
-0.5463052392 -2.050173998 -0.4574822187
-0.5527431965 -2.048447609 -0.4574822187
-0.5585202575 -2.044350386 -0.4569402933
-0.5649400949 -2.042585611 -0.4569402933
-0.5713544488 -2.040800571 -0.4569402933
-0.5770856738 -2.036651134 -0.4563983381
-0.5845178962 -2.037068605 -0.4569402933
-0.5909171104 -2.035222054 -0.4569402933
-0.596953094 -2.033459902 -0.4569402933
-0.6036912203 -2.034015656 -0.4574822187
-0.6107923388 -2.034442902 -0.458024174
-0.6179021001 -2.034845352 -0.4585661292
-0.6242915988 -2.032894373 -0.4585661292
-0.631411016 -2.033250093 -0.4591081142
-0.6377956271 -2.031256437 -0.4591081142
-0.6434236765 -2.026920319 -0.4585661292
-0.649379611 -2.022455692 -0.458024174
-0.6549680233 -2.018088102 -0.4574822187
-0.6589863896 -2.009075642 -0.4558563828
-0.6645148396 -2.004682779 -0.4553143978
-0.667660296 -1.993345022 -0.4531466067
-0.6723300219 -1.986622691 -0.452062726
-0.5767379403 -1.691755533 -0.3832349479
-0.5828590393 -1.692237973 -0.3837769032
-0.5873560309 -1.688098431 -0.3832349479
-0.5943035483 -1.690839767 -0.3843188584
-0.5996121764 -1.688964486 -0.3843188584
-0.6065917015 -1.691656709 -0.3854027689
-0.6121943593 -1.68963623 -0.3854027689
-0.729206562 -1.987267375 -0.4563983381
-0.7354422212 -1.984967232 -0.4563983381
